# 3D point list with one line of data per point:
#   POINT3D_ID, X, Y, Z, R, G, B, ERROR, TRACK[] as (IMAGE_ID, POINT2D_IDX)
# Number of points: 589, mean track length: 3.96506
15685 8.03306 4.09931 4.92839 147 133 133 1.84582 11 2556 2 3007 4 7212
2832 3.46503 2.09315 5.98731 125 114 108 1.71869 6 1771 14 2673 16 2938 13 6312
15684 8.03206 4.38355 4.89848 166 151 155 2.03511 11 1712 2 2992 4 5461
2831 5.89272 1.49198 9.8686 108 94 94 0.716977 6 2250 8 2439
2830 1.96742 1.94837 6.63973 76 54 63 0.797837 15 2348 16 2056 7 3126 13 2039 12 1897
15682 8.10519 4.42261 4.79338 143 133 129 0.686825 11 2203 2 2978
2829 1.75221 1.91623 7.12228 190 64 80 1.89871 15 1660 16 2885 5 9155 6 8909 7 8752 13 2949 12 2777
15681 1.37342 -1.14647 8.39029 183 161 125 1.64962 11 2481 2 2969 4 2588
2828 1.87364 1.9777 6.80764 68 49 55 0.75771 15 1658 14 2664
15680 2.21559 2.26833 6.19601 196 199 204 1.08323 9 3190 2 2940
2827 1.81329 2.1537 6.90449 49 44 57 0.628237 14 2657 16 2040 8 8934
15678 -3.64385 10.7852 19.234 39 36 42 2.92618 9 5401 2 2928
2825 1.32288 2.04792 8.02587 228 189 98 0.907403 6 8841 15 1383 14 2651
15676 2.30515 4.80306 5.62835 94 90 106 0.651469 11 2723 2 2918 4 3084 10 2724
2823 1.73094 2.2668 7.02625 186 186 194 1.82858 15 2335 14 2648 16 2861 7 3112 9 3338 1 3728 11 2174 3 3212 4 2258 2 2471 10 2942
15675 5.12871 13.3967 8.77654 104 101 108 0.952066 11 7294 2 2916
2822 1.98766 2.34754 6.61592 87 80 87 0.927661 6 2544 14 2645 7 3095 9 3279 11 3153 2 6068
2821 1.76026 2.30572 6.92141 185 186 200 1.43061 15 2327 14 2643 16 2860 13 2930
15673 7.47951 5.21213 5.88293 166 157 155 1.60819 11 1773 2 2912 4 5101 10 7304
2820 1.23664 2.11309 8.13374 189 76 80 2.98758 15 2341 14 2642
15672 1.52826 -0.838228 7.89551 60 75 93 1.84273 11 3708 2 2900 4 2529
2819 6.03069 2.23906 9.43533 29 25 24 1.3861 6 5015 5 5099 8 3416 14 2641
15671 -1.74685 1.43111 6.97968 173 173 171 2.39765 9 1697 2 2898
2818 1.26416 2.13436 8.12417 168 181 67 1.82042 15 1351 16 2007 5 3296 8 8797 7 1252
15670 1.22691 3.27106 7.82753 226 225 236 1.45497 11 2179 2 2884 4 3797
2817 1.77442 2.36669 6.83873 193 193 206 0.575192 15 2319 16 2858 13 4177
15669 6.79133 4.89805 7.41063 95 81 86 0.862375 11 1895 2 2862 4 1981
2816 1.64232 2.32749 7.18575 78 61 68 1.0192 15 2326 16 2842 13 1996 12 2698
15668 8.04781 4.51393 4.89581 157 145 147 1.87245 11 1777 2 2849 4 2822
2815 1.76007 2.42425 6.81771 65 62 91 1.2202 14 2630 7 2193 9 2233 11 1253
2814 1.71428 2.47476 6.92929 194 196 207 1.50066 15 1633 14 2626 16 2235
15666 -1.28896 1.66199 9.97963 155 150 146 0.214601 11 6787 2 2828
2813 6.38284 4.83524 8.3935 159 146 153 1.32999 6 4458 14 2624
15665 4.51711 -0.67211 12.3873 72 64 62 0.347393 11 3741 2 2818
2812 1.95034 2.56126 6.6103 122 115 122 1.62825 15 3275 14 2621 16 2848 13 2929
15664 -1.21112 2.25674 10.0425 167 163 160 0.667741 11 6468 2 2793
2811 1.98358 2.56858 6.61358 37 31 38 0.905938 15 3273 16 2016 13 2004 12 1859
15663 1.35065 -0.913101 8.30474 175 65 90 1.48329 11 2466 2 2792 4 2573
15662 5.21608 -1.28002 11.5926 41 23 21 0.105669 11 2439 2 2787
2809 1.33708 2.42659 7.74072 55 45 56 0.554738 14 2614 16 2808
15661 1.33918 -0.68202 8.34321 171 59 81 1.28108 11 3732 2 2779 4 1700
2808 1.25488 2.40679 8.07851 43 46 39 1.68488 15 2318 16 1993 9 3405 7 3135 11 3330 2 2540 4 2358
15660 1.42614 -0.777496 8.11437 46 29 45 1.51247 9 6928 2 2768 4 1687 10 1490
2807 1.65834 2.61893 6.99493 48 55 81 2.0264 15 2300 16 2004 5 8715 7 2184 14 2607
15659 -1.4196 -0.592393 5.55203 172 169 164 0.789509 11 13474 2 2754
2806 1.61641 2.67946 7.0549 194 196 209 1.82517 6 4867 16 2810 8 8641 13 2878
15658 1.56202 -0.890697 7.84623 146 145 163 0.992369 11 6656 2 2752 4 2525
2805 1.70587 2.71418 7.01697 63 66 101 1.20435 15 1622 3 9406
15657 1.54655 -0.803775 7.89559 57 47 56 0.649227 11 2422 2 2748 4 1667
15656 -1.23683 3.33103 10.0775 176 171 168 0.361469 9 5758 2 2732
2803 1.68949 2.75964 6.83629 44 41 52 0.600665 15 2288 16 2811 5 8616
2802 1.62852 2.7686 6.98514 60 58 69 1.74636 6 8442 15 1824 14 2589
15654 -1.24375 3.44008 10.0684 174 170 166 1.0216 11 1797 2 2723
2801 1.36683 5.31849 5.47527 255 152 138 1.90692 15 2595 16 2828 8 6448 7 2548 12 2299
15653 1.553 -0.484648 7.8697 17 19 69 1.31052 11 2393 2 2715 4 1654
2800 1.66849 2.81411 6.8626 197 199 210 1.83918 15 2283 16 1999 13 1977 12 2661
15652 1.7089 -0.44739 7.54461 33 33 43 0.130379 2 2681 4 1629
2799 6.31776 4.3189 8.60887 145 136 141 1.51849 6 3085 5 3046 7 4440 9 8508 11 8645
15651 -1.4494 4.19712 9.87592 188 188 190 1.57406 11 14063 4 1686
2798 1.63641 2.81658 6.96589 191 200 206 1.31891 15 3241 14 2582 16 2799 13 2863 12 2641
15650 1.73188 -0.480339 7.4803 39 38 52 0.685023 11 3622 2 2677 4 1625
2797 1.57776 2.83393 7.08528 200 203 215 2.0083 15 2281 16 1988 5 8607 7 2170 9 2222 11 3184 3 7847
15649 1.73117 -0.453816 7.48027 30 35 40 0.559464 9 3785 11 2351 2 2675 4 1624
2796 1.65963 2.84947 6.90775 196 200 209 0.708404 14 2580 16 1991 13 1489 12 1780
15645 1.04461 0.948833 8.05511 67 63 70 1.09014 9 13503 2 2643
2792 6.46637 3.2625 8.38601 22 17 14 1.62405 6 2170 5 2087 8 2377 7 2142 11 3074 1 2303
15644 1.67218 -0.0267543 7.55413 180 174 175 0.534812 11 3578 2 2639 4 2421 10 2041
2791 1.54702 2.96275 7.08399 35 80 77 2.6274 15 2264 14 2565 7 3047
15643 1.65262 0.0227111 7.58232 181 174 171 0.182099 11 2320 2 2638 4 2425
2790 1.61718 3.05356 6.9092 198 193 204 1.87813 15 2256 16 1978 13 1956 12 1759
2789 5.80692 3.48951 9.82038 70 59 63 1.69388 6 2164 5 2098 8 3323 7 3053 15 9250
15641 1.43962 1.0386 7.9608 76 75 81 1.70207 11 5974 2 2608 4 1612
2788 2.29453 3.3401 5.8223 40 38 52 1.56219 15 2225 14 2543 8 8420
15640 1.47023 1.03122 7.97198 38 41 46 0.109793 11 2265 2 2607
2787 1.76623 3.2833 6.64733 42 30 34 1.34086 15 2236 14 2538 16 2744 7 2972 13 2824 12 2622
15638 1.79701 0.0255387 7.24862 200 85 124 1.10427 11 3522 2 2599 4 1585
2785 1.6481 3.33611 6.71824 216 214 225 1.43817 15 4938 16 935 13 512 12 464
15637 1.34161 1.12168 7.86285 84 90 104 1.46344 11 1552 2 2595
2784 1.7239 3.34274 6.71073 61 54 62 1.61007 15 3175 14 2529 16 2732 13 2800 12 2604
15635 0.71453 1.3786 7.65007 184 182 194 1.38004 11 5863 2 2589 4 2408 10 2102
2782 1.72152 3.37297 6.6947 194 196 208 1.77615 15 1588 16 1957 13 2255 12 2602
15634 3.66308 -1.01655 7.51161 15 17 16 1.55667 11 6246 2 2586 4 1573
2781 1.82778 3.56781 6.57401 89 77 101 1.73516 14 2523 16 3797 5 2034 8 1430 7 4469
15633 3.67509 -1.01859 7.44585 16 18 17 0.54633 11 6233 2 2580
2780 1.68727 3.36941 6.66706 71 65 77 0.824501 15 3169 14 2520 16 3827
15632 1.40133 1.34749 7.90384 198 177 146 2.06628 11 2250 2 2578 4 6233
2779 2.31953 3.45244 5.76514 45 45 55 0.518832 15 2216 14 2516 16 1983
15631 1.81745 0.648048 7.26572 109 82 65 0.261513 11 2252 2 2557
2778 1.73268 3.40606 6.66445 181 182 200 1.73349 6 4693 15 2228 16 2723 5 4679 8 8373 7 2960 9 3204 11 3075 2 5934 4 3545
2777 2.31574 3.48329 5.78604 14 15 20 0.707934 15 5198 14 2512 16 2240 13 1567
15629 1.83064 1.35733 7.11338 159 147 147 1.56923 1 6715 11 2208 2 2509 4 2296
2776 1.32832 3.3854 7.44832 84 73 87 2.43175 15 1593 14 2509 16 2682
15628 1.92157 1.32038 6.97673 165 151 148 1.03178 11 2205 2 2499 4 2280
2775 2.33812 3.56481 5.69132 50 49 59 0.795914 15 2197 14 2507 8 8337 7 2853
15627 3.194 -1.14934 5.754 45 30 25 0.388808 11 3419 2 2482
2774 2.28061 3.57059 5.8241 44 44 52 1.34251 15 8790 14 2504 16 2750
2773 1.4472 3.50284 7.23075 133 125 135 1.8392 15 1587 14 2502 7 2125 5 8293
15625 1.83598 2.15329 7.06421 84 145 133 1.16583 11 3247 4 1528
2772 1.54584 3.54339 6.99642 138 135 146 1.1098 15 1582 14 2498 16 1927 7 2112
15624 8.00808 4.61453 4.96022 161 149 152 0.650829 11 1707 2 2473
2771 5.96502 4.02129 9.45903 76 60 60 1.12896 5 2060 8 2321 7 2987
15623 1.43564 3.05146 7.30525 210 205 205 0.610599 11 3193 2 2466 4 2267
2770 2.26372 3.66322 5.82513 47 46 61 2.10162 15 3102 14 2491
15622 1.61026 2.72656 7.05016 216 216 228 0.818106 11 2145 2 2449 4 2241
2769 1.27307 3.67657 7.65411 82 54 66 0.821749 14 2479 7 2989 9 3250 11 5045 2 6413
15620 1.70522 2.56424 6.90943 212 215 222 1.39882 11 2143 2 2436 9 2165 4 1511 10 1983
2767 2.24149 3.81741 5.87495 61 52 73 2.23846 15 2157 14 2465 16 2698
15619 1.56759 3.24857 7.05332 133 128 150 0.64101 11 3133 4 6289
2766 1.15804 3.76882 6.37863 248 142 128 0.630398 6 3095 14 2457 5 3017 8 3285 7 2906 9 4086 1 3479 11 4261 3 3053 2 5863 4 5899
15618 7.98164 4.47882 4.96231 59 43 46 0.0588253 11 1716 2 2384
2765 1.69784 3.87867 6.36169 254 125 132 0.765532 6 2109 15 2158 14 2447 5 1989 8 2320 7 2050 1 2176 3 2105
2764 2.22095 3.91205 5.90585 57 49 68 1.15336 15 2141 14 2446 16 1925 13 1944 12 1788
15616 8.00227 4.45691 4.98698 169 156 156 0.372443 11 1721 2 2353
2763 6.09888 4.5041 9.08975 152 141 149 2.10445 6 2107 14 2434 5 2026
15615 5.43526 1.46191 6.96153 95 88 82 0.219621 11 3112 2 2320
2762 1.26103 3.90999 6.30383 248 138 123 0.963999 6 3059 14 2426 5 2976 8 3254 7 2874 9 4146 1 3423 11 3893 3 3006 2 5459 4 5841
2761 1.27455 1.87997 8.12399 162 59 63 1.44236 15 3366 14 2419 16 2852 7 5014 13 1982 12 1755
15612 0.502694 12.5049 9.97197 156 152 151 0.113288 9 1857 2 2286
2759 0.898524 3.97244 6.23741 254 255 254 0.942024 6 2090 14 2401 5 1965 8 2287 7 2033 9 2095 1 2167 3 2095 2 3639 4 3491 13 1572
15611 1.38695 3.85613 6.34414 135 117 227 0.898027 11 2044 2 2284 4 3480 10 8757
2758 1.40115 4.10479 6.19782 252 255 255 0.926263 6 2067 14 2387 16 1843 5 1929 8 2259 7 2013 9 2071 1 2142 11 2964 3 2072 2 3586 4 3420 13 2246 10 8656
15610 1.06816 4.00782 6.22725 135 113 222 1.79979 11 2020 2 2272 4 3471 10 8799
2757 1.23527 4.14598 6.16258 254 149 128 0.74862 6 2973 14 2373 5 2895 7 2810 8 3184 9 4232 1 3330 11 3954 3 2934 2 4592 4 5760
15609 1.10929 4.23291 6.09857 255 143 142 0.817195 11 1567 2 2235 4 2082 10 4781
2756 1.69408 4.21709 6.1546 171 230 255 0.964035 6 2958 14 2370 5 2875 8 3167 7 2798 9 3050 1 3297 11 4007 3 2915 2 4671 4 5663 13 2669
15608 0.996774 4.29336 6.0606 129 116 220 0.566683 3 1866 2 2233 4 2079 10 4798
2755 2.35184 4.24412 5.60204 87 82 110 1.21269 15 3614 14 2369 16 2219
15606 1.85246 4.18868 6.18673 72 58 84 0.574554 11 1972 2 2207 4 2057 10 4312
2753 6.20795 5.04446 8.76029 147 132 135 1.69579 6 1504 14 2359 5 1939 7 2028
15605 6.59639 4.68139 7.95967 138 122 123 0.587016 11 1965 2 2201
2752 1.33927 4.28578 6.08717 254 152 137 0.863309 6 2525 14 2349 5 2859 8 3150 7 2789 9 4271 1 3280 11 4009 3 2901 2 4656 4 5684
15604 7.09762 2.084 6.94789 65 53 55 1.66305 11 2023 2 2182 4 2709
2751 1.27369 4.33464 6.05402 255 152 133 0.753067 6 2909 14 2337 5 2839 8 3129 7 2773 9 4288 1 3261 11 4027 3 2884 2 4676 4 5671
15602 2.11426 4.28187 6.06901 34 35 49 0.232782 11 1938 2 2158
2749 2.50853 4.47404 5.20493 173 163 187 1.21869 15 1984 14 2322 8 7501 6 7147
15600 7.03465 2.80682 7.00393 59 46 46 1.59011 11 1563 2 2140 4 1974
2747 1.30473 4.48203 5.96799 252 153 144 0.530257 15 2869 14 2310 16 2467 8 2153 7 2736 9 2991 1 3220 3 2845 13 2577 12 3617
15599 1.44704 4.70429 5.83854 251 141 118 1.52387 9 1993 2 2122 10 4656
2746 1.83354 5.26396 5.53568 255 141 141 1.32015 14 2294 16 2271 5 8741 8 11303 1 5818
15598 1.94345 4.63556 5.94109 65 59 96 0.122825 11 1700 2 2117 4 1996
15597 1.11199 4.85697 5.73598 130 113 219 0.695021 11 2224 2 2114 4 3236 10 8486
2744 1.31314 4.52163 5.9456 255 158 141 0.781714 6 2858 14 2288 5 2777 8 3057 7 2723 9 4370 1 3200 11 4079 3 2829 2 8394 4 5584
15596 6.06032 5.30942 7.44315 161 147 147 1.86188 1 2079 2 2113
2743 -1.57148 4.88069 10.0615 99 111 123 0.366324 6 3028 14 2268 5 3059
15595 5.90598 5.25197 7.33943 0 0 0 0.0244718 1 3185 11 2820
2742 -1.36562 4.94491 10.0188 169 166 164 0.206706 6 3019 8 3014
15594 1.32054 4.80859 5.76281 254 138 136 2.084 9 1980 2 2110 4 4475 10 2787
2741 2.21005 4.74933 5.81867 57 58 76 0.312587 15 1957 14 2247
15593 1.68667 4.74538 5.83981 255 134 132 0.665214 8 1066 2 2106 10 4433
2740 1.34314 4.67126 5.86001 251 158 147 0.791853 6 1917 14 2242 16 2401 7 2693 1 3146 11 4121 13 2536
15592 1.15237 5.0462 5.62908 111 101 198 1.06343 11 1855 2 2080 4 1970 10 8427
2739 1.42479 4.70239 5.84962 246 156 147 0.923725 15 2791 14 2238 16 2395 5 1805 7 2686 1 3132 3 2791 13 2540 12 3594
15590 1.7268 4.93147 5.73508 254 135 134 1.40558 8 1052 2 2075 10 8305
2737 -2.8752 5.09808 11.3163 43 39 40 1.19961 6 6166 14 2235
15589 1.8584 5.13221 5.62606 237 128 117 0.543354 11 1374 2 2052 4 1939
2736 -1.66225 5.04698 10.0311 113 105 117 0.674157 6 2997 14 2234 5 3044
15588 1.30672 5.30723 5.4841 220 246 255 1.50351 11 1368 2 2046 4 3099 10 8297
2735 1.81005 4.78197 5.83173 178 246 254 0.773424 6 1891 14 2232 5 1790 8 2045 7 1874 9 1979 1 2907 11 2800 3 2769 2 4927 4 4529
15587 7.39015 3.2932 6.32132 94 80 75 0.582333 9 2036 11 1864 2 2036
2734 1.2266 4.74129 5.80771 254 255 253 1.38302 15 2589 14 2226 16 2372 5 1797 7 2674 1 3120 3 2781 2 4546 13 2503 12 3550
15586 5.43368 12.8665 8.52104 181 179 180 2.8069 11 1749 2 2033 10 9090
2733 6.76055 6.20502 9.68617 177 166 170 1.99672 15 7702 14 2221
15585 7.11048 5.76699 6.67977 172 161 165 1.11497 11 1361 2 2023 4 1899
2732 2.32203 4.89636 5.57083 106 107 125 0.277387 15 2740 14 2212 8 7025 7 2623
15584 7.31337 4.31622 6.30199 164 150 149 1.17737 11 1804 2 2022 4 3023
2731 1.59395 4.88761 5.74786 255 255 255 1.03657 6 1780 15 1905 14 2201 5 2661 6 2754 8 2908 7 2643 9 2872 1 3067 11 7048 3 2742
15583 7.34729 4.17294 6.21215 125 111 111 1.02165 11 1803 2 2019 4 1883
2730 -0.945316 5.4595 10.3533 183 180 176 1.53105 6 2943 5 3001 7 4528 8 2305 9 5238
15581 2.89629 3.66317 4.89435 173 163 168 0.611616 1 1941 2 2014
2728 1.01579 -0.314243 7.36995 106 101 124 1.24616 6 3624 15 2473 14 2186 5 2298 8 5712 7 1753 1 1295
2727 -1.86785 5.36433 9.93894 194 193 198 1.01241 6 4418 14 2185 5 7959
15579 6.44916 7.87528 6.82821 79 70 71 0.672237 9 2225 2 2007
2726 -2.23069 5.36383 10.0409 142 141 137 0.44199 6 4427 14 2178
15577 7.35026 6.00612 6.11948 138 124 124 1.11995 11 1767 2 1986 4 2976
2724 1.08187 4.96415 5.67063 254 255 254 1.67528 6 2576 14 2164 7 4112
15576 5.84239 8.07282 6.26835 17 16 22 1.28866 11 4663 4 3002
2723 1.41886 5.04744 5.63961 252 170 152 1.33548 6 1834 14 2151 7 2611 13 1692 16 1710 1 3030 12 2350
15575 7.68391 4.31029 5.58234 159 148 146 1.22793 11 1775 2 1972 4 2919
2722 1.63214 5.07638 5.63903 255 254 255 1.67962 15 1875 14 2150 5 2594 6 2698 8 2866 7 2601 9 2814 6 1781 1 3009 3 2686 2 5035
2721 -1.30642 5.70409 10.1576 123 117 114 1.51611 6 1981 14 2147 5 1480
15573 7.24809 7.77435 6.19688 142 130 134 1.08529 11 1719 2 1968 4 1859
2720 -1.41385 5.71486 10.0844 160 159 155 1.4835 6 2885 14 2142 5 7788
15572 4.05863 7.95938 5.64734 195 198 207 1.20805 11 1705 4 1866
2719 1.8394 5.15751 5.61418 255 188 193 1.63154 15 2668 14 2133 16 2300 5 1728 8 2846 6 5408 7 6613 9 2797 11 2714 11 7774 3 5248 13 2470 12 2383
2718 1.91128 5.1801 5.61075 247 145 138 1.67933 15 1864 14 2131 7 1803 9 2791 5 1307
2716 1.0129 4.20891 6.10678 126 111 228 1.02226 6 2037 14 2109 16 1652 5 1908 7 1994 9 3065 1 2127 11 2958 3 2056 2 3587 4 3430 12 2428 10 8743
15568 7.84509 5.52844 5.24991 127 112 115 1.17219 11 2064 2 1932 4 2629
2715 1.48433 3.84383 6.35583 126 114 221 1.26303 15 2166 14 2104 16 1906 5 1996 6 3077 8 2325 7 2055 9 3144 1 3445 11 3013 3 3024 2 3629 4 3478 13 2721 12 2558 10 8736
15567 7.65865 4.7178 5.6254 132 116 117 0.683126 11 1347 2 1924 4 1839
2714 2.2879 3.37986 5.75704 41 40 56 0.920794 15 1584 14 2100
15566 1.43485 3.66455 7.29613 187 182 194 1.34075 11 2109 2 1913 4 2238
2713 1.82676 -0.394693 7.21264 182 179 188 0.29735 6 10473 14 2091 5 10843
15565 8.02551 4.55567 4.899 138 126 126 1.62159 11 1328 2 1903 4 1771
2712 3.75225 -1.10415 5.97441 126 121 117 1.7403 6 1030 14 2086 5 959
2711 3.3937 2.72051 5.91276 124 117 109 1.68185 6 1773 14 2076 5 1510 8 1631 16 2043
15563 5.25407 -1.26955 11.488 47 30 23 1.52875 11 2433 2 1853
2710 2.14118 2.08413 6.37487 171 165 167 1.4063 15 1654 16 2234 5 5031 14 2075 7 2201 9 2228 11 2119
2709 1.7301 -1.05549 7.41276 38 36 40 1.18281 14 2072 16 3084 8 10460 13 4508 12 4304
15561 -1.3141 2.89504 10.0363 167 162 161 2.05298 9 2373 2 1838 4 1120
2708 4.02289 -1.51244 6.13858 136 125 119 0.433906 15 1788 6 1234
15559 1.3592 -0.480047 8.26131 36 30 34 0.644157 11 1639 2 1833 4 1136
2706 3.61638 -1.03126 5.85122 47 33 22 1.80369 15 1777 8 1000
15558 1.53444 -0.526786 7.92581 22 17 37 0.821729 2 1810 4 1268 10 1510
2705 2.17599 4.21654 9.88663 249 254 255 1.29471 15 8804 14 2032
15557 1.55251 -0.513379 7.89327 82 69 97 0.449851 11 2396 2 1807 4 1267
2704 3.12557 -0.55784 5.82565 49 33 25 0.510449 15 1761 16 7292
2703 1.99329 -1.12827 6.95279 123 96 84 1.4945 6 2449 14 2023 16 3108 5 989
2702 3.32831 -0.524965 5.90814 41 26 21 0.367338 15 1280 8 1275
2699 2.20735 -0.674975 6.69575 109 85 73 1.68398 15 1049 14 2010 5 1661
2698 4.84081 -0.559746 6.66844 102 36 38 1.78404 6 1000 15 1730 5 947 8 1288 7 1205 9 1676 11 1516
2697 1.59526 -1.03173 7.74854 131 129 142 2.22901 6 3722 15 1270 5 2352 8 5825
15549 2.8279 -1.25565 6.26191 98 86 74 1.06791 11 6204 4 1533
2696 1.75702 -0.851274 7.42731 85 110 131 1.42718 15 1276 14 1994 16 1195 7 1174 9 1241 1 2820 11 946 13 1459 12 1397
2695 1.67696 -0.912644 7.55831 26 21 27 1.61054 6 2408 14 1989 16 1429 5 2344 8 3827 13 1462 12 992
15547 1.99648 1.42214 6.57869 182 163 149 0.577222 11 1489 2 1661 4 1504
2694 1.38328 -1.23999 8.28639 124 115 108 1.55327 15 1766 14 1987 16 2153 8 5810
15545 1.64605 2.71288 7.03856 89 91 114 0.635579 11 1466 2 1651 4 1520
2692 4.96648 -0.427919 6.73038 28 18 26 1.55459 6 1728 16 3079 15 2445 5 1642 8 2607 7 2324 9 5849 12 3096
15544 2.12021 1.42915 6.36202 183 154 124 0.767701 11 1484 2 1639 4 1490
2691 1.39153 -1.04583 8.19525 50 29 40 2.808 15 1356 14 1979 16 1445 8 10228
15543 2.04133 2.05008 6.6677 120 115 121 0.0268517 11 1470 2 1636
2690 1.56817 -0.825334 7.82791 133 137 162 1.78787 6 3695 15 1278 14 1976 16 2151 5 3716 7 1173 9 970 1 1282 11 901 2 613 4 609 13 2105
15542 1.68596 2.74881 6.83871 104 100 127 0.820142 11 2123 2 1631 10 2918
2689 1.34446 -0.995725 8.29049 39 22 28 1.58536 15 1756 5 2341 1 4769 14 1974
15541 2.41725 0.827886 5.89662 172 127 69 0.580381 11 1482 2 1618 4 1457
2688 1.42439 -0.913258 8.13615 150 140 141 1.91203 6 3693 15 1277 14 1973 16 1449 5 3725 8 4320
15540 2.50501 0.673071 5.68195 100 70 62 0.762809 11 1476 2 1606 4 1424
2687 1.47413 3.9613 6.28785 246 255 255 0.856036 6 1548 14 1972 16 1881 5 1486 8 1884 7 2031 9 2086 1 1562 11 2018 3 1601 2 2262 4 2108 13 1867 12 2540 10 4774
15539 1.55481 3.79622 6.82912 208 206 230 0.626115 1 4987 2 1603
2686 1.55621 -0.727537 7.85506 47 64 92 1.02496 15 1748 14 1967 5 5843 7 1685 9 1760 11 1119
15537 5.44213 1.44594 6.92144 57 46 44 1.0481 11 6901 2 1575
2684 1.76446 -0.4749 7.38166 99 51 91 1.8971 15 1290 14 1962 16 2149 13 2110 12 1948
15536 2.6794 1.75214 5.62341 133 132 130 1.86915 11 748 2 1538
2683 1.36533 -0.832339 8.24004 165 50 79 2.17159 15 1282 14 1959 8 10130
15535 6.93069 2.72484 7.29058 52 45 37 1.23072 11 1655 2 1512 4 1400
2682 -1.79706 -2.07573 11.1645 91 76 79 2.54309 14 1951 5 755
15534 2.21464 3.899 5.90219 84 79 102 0.7596 11 1425 2 1486 4 1002
2681 1.76045 -0.294359 7.37526 112 53 106 2.45444 6 5607 15 1301 14 1947
2680 1.71817 -0.335865 7.51552 25 29 33 0.867794 15 1300 14 1946 16 1455 7 1189 9 1262
15532 6.1555 5.35251 7.49433 172 158 157 1.61018 11 4157 2 1472
2679 1.63357 -0.395816 7.6941 54 57 64 1.6773 6 10356 14 1945 15 1732
2678 2.02998 0.00339933 6.85962 104 79 75 1.03309 15 1308 14 1943 16 2146 13 2115
15530 2.32352 4.41512 5.60889 113 109 133 0.451285 11 1386 2 1447 4 1374
2677 0.41085 -0.129758 7.30607 152 156 168 2.1154 15 1734 14 1936 7 3437
15526 4.74112 -1.0367 12.6977 141 128 120 0.297477 11 2473 2 1420
2673 1.02013 3.92886 6.27262 253 254 254 1.1765 6 1552 14 1920 16 1864 5 1491 8 2297 1 1572 11 2036 3 1611 2 2289 4 3490 13 1830 12 2103
15525 5.5734 8.09505 6.23061 26 23 34 0.543088 11 989 2 1417
2672 1.29933 -0.154596 8.35177 182 63 90 1.62536 15 1309 16 1483 8 5580 13 2064 12 1889
15524 7.74587 3.61462 5.52834 126 111 114 0.130098 11 1354 2 1413
2671 0.958241 3.93638 6.26191 255 254 255 1.11493 6 1551 14 1918 16 1857 5 1490 8 2295 1 1573 11 2037 3 1612 2 2291 4 2139 13 1828 12 2464 10 4875
15523 5.81323 8.09813 5.92631 100 90 98 1.45894 11 1324 2 1409 4 1861
2670 1.54266 0.0558144 7.85991 124 108 111 1.16121 15 1312 14 1914 16 2114
15521 2.8534 -0.945995 5.65804 44 39 33 0.43975 11 11037 2 1357
2668 1.36746 -0.0078337 8.23264 153 45 60 1.61382 6 3564 15 1311 14 1909 16 2104
15520 2.09195 0.661269 6.65745 98 67 62 1.19779 11 1305 2 1341 4 1111
2667 2.32536 0.815793 6.1024 176 139 74 1.19994 15 1703 14 1908 7 1608 9 1634 11 1488
15519 1.50296 2.2703 7.53446 194 169 164 1.23161 11 1221 2 1338 4 792 10 707
2666 1.42148 0.086323 8.09803 149 139 148 1.06981 14 1907 16 1488 13 1518 12 1256
15518 2.21996 0.0166227 6.41435 88 61 51 0.457975 11 1538 2 1336 4 1110
2665 1.39075 0.115742 8.13517 49 26 34 1.60238 15 1060 14 1905 16 2101 5 5795 8 9668 7 1650 9 1723 13 1519 12 1254
15517 2.01346 1.40348 6.6415 122 95 67 1.54617 3 1722 11 1226 2 1335 4 774
2664 1.29447 0.0681031 8.33363 150 81 92 1.43076 6 5305 5 6237 8 5540 14 1904
2663 1.36007 0.108687 8.20736 151 45 62 2.13388 6 3550 14 1903 16 2098 5 3568 13 2058 12 1884
15515 7.07921 8.18619 6.37338 52 41 46 1.92847 11 1331 2 1327 4 931
2662 1.28783 0.138223 8.3994 177 57 84 1.23243 15 1315 16 2093 6 2321 5 2266
15513 1.7829 0.785236 7.28935 185 150 94 1.36386 9 921 2 1311
2660 1.29145 0.25541 8.43666 175 170 167 1.38812 15 1316 6 1693 16 2087 8 2524 14 1898 9 1270 13 2047
15511 1.39461 -0.818362 8.26751 179 67 92 1.4372 11 2454 2 1305 4 869
2658 0.755827 2.1012 3.24211 185 148 92 0.658207 15 3353 14 1886
15510 1.99648 0.00871568 6.90838 66 54 56 0.246538 11 1562 2 1304 4 1243
2657 1.32441 0.63281 8.34273 70 50 41 1.5171 6 2300 15 1700 14 1884 16 2078 5 2248 8 5446 7 1630 1 2627 11 1150 3 1802
15509 1.75886 0.816686 7.40762 186 150 91 1.45539 3 1764 11 1545 2 1303 1 1702
2656 -0.623229 0.880847 7.42744 115 105 93 0.960743 6 9557 14 1883
15508 1.57553 0.680292 7.75279 177 170 167 0.663452 11 1311 2 1275 4 1195
2655 6.7927 1.13423 7.75125 43 33 31 0.948132 6 2278 5 2208 7 2244 9 3349 11 2130
15507 1.09777 1.00803 7.75779 81 81 93 1.48512 3 1321 11 1172 2 1274 4 1190 10 2094
2654 0.598984 1.01532 7.74328 67 37 68 1.86146 15 1694 9 1692
15506 1.38797 0.985947 7.99779 60 57 66 0.784441 11 1565 2 1272 4 1188
2653 2.0009 1.39743 6.65067 152 141 137 0.525691 15 1337 14 1876 16 4079
15505 0.631624 1.38348 7.83352 93 32 40 1.45847 2 1271 4 1186
2652 1.41674 1.20549 7.8855 136 136 144 1.33132 6 1796 15 1679 14 1872 16 2060 5 2212 7 2276 9 2363 1 2522 13 2021 12 1230
15504 0.827691 0.889127 7.71487 150 157 183 1.24604 11 1575 2 1266
2651 1.44666 1.27798 7.93077 138 122 128 1.9594 6 1675 14 1868 16 1516 5 997 8 1671 13 1547 12 1225
15503 -1.33846 4.08387 10.0226 171 167 164 1.29976 9 2314 2 1249 4 1132
2650 -0.942521 1.21006 7.77658 158 155 144 0.719035 6 9314 14 1867
2649 1.39235 1.32117 7.94423 135 125 136 2.20563 6 1670 14 1864 16 1520 8 2470 13 2014 12 1834
15500 1.6076 -1.06738 7.75256 27 23 22 1.29725 11 1658 2 1229 4 1146
2647 1.05178 1.36815 7.76827 31 27 42 1.57171 15 1675 16 978 8 1670 5 1585 7 2885 9 10717 13 539 12 500
15499 1.43524 -0.845039 8.12873 48 28 30 1.89959 11 2448 2 1221 4 1133
2646 0.968532 3.99166 6.23002 254 255 253 1.00067 6 1544 14 1861 16 1846 5 1482 1 1565 3 1602 2 2282 4 2649 13 1627 12 1695 10 8828
2645 1.10009 1.38055 7.83171 159 166 182 2.1944 6 1325 14 1859 5 1584 8 1199 13 1551 12 1218
2644 3.71972 -1.55847 6.11813 77 63 50 1.6638 14 1842 7 2636
2643 1.67558 2.04926 7.26192 44 34 38 1.96653 15 1348 5 2155 6 3315 8 5192 14 1835
2642 1.96284 2.43596 6.62353 122 100 103 1.59699 15 1635 16 2031 8 1638 12 1869 13 2012
15493 0.419048 -0.510177 7.44483 14 17 27 2.14318 9 1771 2 1172
2640 1.54126 4.11735 6.20346 255 254 255 1.55402 6 1527 14 1820 5 1463 8 1590 1 1542 11 1993 3 1585 2 2234 4 2077 13 1839 10 4740
15492 2.82224 0.144119 5.70146 134 132 119 0.500564 11 552 2 1159
2639 1.8818 2.70973 6.64237 174 176 189 1.32726 15 1621 14 1816 16 1557 13 1562 12 1227
15490 1.68076 3.09805 6.68602 206 204 218 0.9469 11 1282 2 1154 4 1091
2637 1.13375 2.5784 8.19916 172 56 56 1.02868 15 1632 16 1980
15489 7.83411 3.46763 5.32522 126 110 111 1.95419 11 1000 2 1149 4 1303 10 1708
2636 1.62522 2.84777 6.96797 91 78 95 1.46644 15 1614 14 1804 16 1990 8 8564 13 1968 12 1774
15488 2.23319 1.96438 6.20545 205 197 195 0.756139 11 771 2 1146 4 1074 10 1354
2635 2.49468 3.06868 5.41492 160 167 175 1.15098 15 1598 14 1802 16 1641 13 1534 12 1917
15487 1.67733 3.60368 6.74374 123 128 147 0.52012 11 1426 2 1143
2634 1.64177 2.92682 6.88536 194 197 209 1.76985 15 1827 16 2790 7 2158 9 2202 14 1800
15486 1.63596 3.56904 6.65662 240 243 255 1.65071 1 1602 2 1139 3 1652
2633 1.84605 3.03551 6.59922 169 59 80 1.20071 15 1235 14 1795 5 3152 6 3184 7 1511
15485 1.7042 3.61949 6.57381 201 204 223 0.602645 11 1196 2 1130 4 1081
2632 1.62161 3.12785 6.80419 193 196 203 1.69656 15 1602 14 1790 16 1214
15483 2.12746 3.4753 6.12906 82 73 102 1.06544 11 1108 2 1093 4 1070
2630 1.68321 3.16302 6.67362 41 38 44 1.69383 15 1600 14 1787 16 1569 7 1506 9 1721 11 1439 2 1610 13 1386
15482 2.11696 3.69939 6.1353 66 60 88 0.701455 11 1080 2 1083 4 1043
2629 1.05562 4.08851 6.17888 134 122 234 1.04966 6 2069 14 1786 16 1546 5 1931 8 2260 7 2018 9 2079 1 2151 11 2015 3 2080 2 3607 4 3455 13 2173 10 8776
15481 2.14953 3.58952 6.07709 80 71 100 0.626345 11 1081 2 1082 4 1035
2628 1.6354 3.17199 6.78271 98 102 113 1.78585 15 1229 16 1571 13 1364 12 1179
15480 2.17224 3.69721 6.01901 72 67 89 0.551071 11 1076 2 1070 4 1024
2627 5.85842 3.47188 9.82823 127 117 125 0.58454 6 2166 5 2100 8 1575
15479 2.19763 3.80684 5.96314 105 97 121 0.494699 11 1499 2 1063 4 1010
2626 1.63503 3.28944 6.72112 68 58 69 0.76092 14 1777 16 1577 13 1360 12 1172
15478 2.25603 3.82856 5.82168 95 95 121 0.880531 11 1064 2 1050 4 993
2625 1.54161 3.39265 7.08743 166 155 169 1.58741 15 1220 14 1773 16 1590
2624 2.30243 3.48346 5.83277 43 41 55 0.794922 15 1574 14 1772 16 1976
15476 2.29761 4.02917 5.70874 102 93 121 0.491977 11 1052 2 1035 4 976
2623 1.46871 3.39682 7.21339 181 164 180 1.24478 15 1221 14 1771 16 1203
15475 2.3356 3.92909 5.654 108 105 126 0.25621 11 1051 2 1034 4 973
2622 1.39916 3.43793 7.36126 182 176 186 1.16229 15 1072 16 1594
15474 2.32253 4.13572 5.65265 121 117 146 0.506172 11 1399 2 1027 4 967
2621 2.32367 3.57824 5.87345 17 16 24 0.0812466 15 4803 14 1767
15473 2.41121 4.76115 5.96284 0 0 0 2.40694 8 4475 11 1043
2620 1.55565 3.57289 6.96411 77 66 82 1.66732 15 1579 14 1762 7 1383 9 2174 11 2092
15472 2.35834 4.0345 5.59486 125 123 147 0.177584 11 1010 2 1021 4 962
2619 1.46383 3.7401 6.41934 244 253 255 1.40232 6 1581 14 1747 16 1917 5 1587 8 2344 1 1589 11 2046 3 1633 2 2298 4 2144 10 4837
15471 2.29437 4.53788 5.67795 61 56 81 0.588006 9 1094 2 1019 4 963
2618 1.3997 3.74631 6.40768 242 254 255 1.34065 6 1576 14 1744 16 1914 8 2387 1 1590 3 1634 2 2301 4 3506 13 1887 12 2560 10 8795
15470 2.34783 4.24726 5.59787 107 105 129 0.434156 11 1041 2 1018 4 959
2617 1.24645 4.12636 6.17846 252 149 131 0.85128 6 1522 14 1738 16 1830 5 1923 8 1588 7 2009 9 2074 1 2141 11 2001 3 2068 2 2248 4 2093 13 1297 12 1703 10 2856
15469 7.08236 1.56109 7.04776 57 48 49 0.943124 11 1338 2 1016 4 1397
2616 1.00741 4.18051 6.12232 255 255 255 1.24827 6 1513 14 1725 16 1441 5 1453 1 1540 11 1996 3 1584 2 2250 4 3439 13 1285 12 1669 10 8751
15468 2.38105 4.13742 5.53446 121 121 145 0.648118 11 1040 2 1015 4 1370
2615 1.58021 4.30649 6.09541 255 255 255 1.28143 6 1374 14 1721 5 1439 8 1566 9 1496 1 1521 11 1955 3 1561 2 2198 4 2051 10 8540
15467 2.36587 4.34671 5.53765 120 120 141 0.664159 11 1034 2 1010 4 956
2614 1.44016 4.29383 6.09007 254 255 255 0.767629 6 1805 14 1720 16 1638 5 1894 8 2210 7 1979 9 2047 1 2117 11 2155 3 2047 2 3540 4 3370 13 2138 10 8583
15466 2.84809 -0.579324 5.70655 55 42 33 0.183562 11 463 2 1009
2613 1.24804 4.28553 6.08161 254 149 143 0.925387 6 1489 14 1719 16 2171 8 1861 9 2054 1 2121 3 1569 13 1960 12 2440
15463 2.45285 4.69883 5.37955 148 149 169 1.34994 11 1014 2 991 4 1357
2610 0.973463 4.34915 6.02038 254 255 255 1.15957 15 1526 14 1696 16 1934 5 1876 8 2185 7 1967 9 2045 1 2111 11 2126 3 2042 2 3560 4 3401 13 1785 12 1636
15460 7.67441 4.54962 5.59291 139 124 127 2.25779 11 997 2 969 4 1317
2607 2.18296 4.59598 5.91484 53 55 76 1.0148 15 1496 14 1673 16 1357 13 796 12 721
15459 8.07252 4.15402 4.90123 156 145 149 1.86529 11 847 2 955 4 909
2606 1.21145 4.51387 5.94181 255 254 255 0.952625 15 1495 14 1666 16 1787 5 1409 8 2140 7 1928 9 2026 1 2084 11 1937 3 2012 2 3497 4 3331 13 1773 10 8575
15458 2.0236 -1.12271 6.92536 180 153 120 1.1019 11 1131 2 947 4 816
2605 -1.50297 4.86916 10.0078 102 116 129 1.5771 6 1547 5 1474 7 1514 8 1518 1 2401
2604 1.32588 4.66233 5.86485 251 157 139 1.1556 15 1472 14 1644 5 1387 8 1504 3 1859 13 1755 12 1627
2603 -1.54131 5.05952 10.073 177 164 113 1.371 6 2070 5 2024 14 1626 1 6320
15455 1.343 -0.963769 8.45516 38 25 32 0.0975409 2 923 4 879
2602 1.12646 4.77479 5.78046 130 114 233 1.69061 6 1889 14 1612 16 1301 5 1365 7 1878 9 2917 11 2829 1 2026 3 1974 2 3418 13 1225
15453 1.37223 -0.5282 8.23241 173 54 82 1.01228 11 981 2 899 4 858
2600 1.63483 4.90796 5.74659 135 109 232 1.54468 6 1417 14 1602 16 1299 5 1345 7 2641 9 2866 1 3064 11 4249 3 1948 2 4955 4 3179 13 1238 12 1628
2598 1.67143 5.09595 5.6374 132 110 231 1.99308 6 1387 14 1570 5 1316 16 1273 8 1402 7 1813 9 2808 11 4327 3 1910 1 1950 2 3292 4 4642 13 1210 12 1091
15450 1.7348 -0.824302 7.47373 129 60 86 0.46558 11 1123 2 883 4 599
2597 1.60298 5.23978 5.53611 148 110 232 0.990067 6 1371 14 1544 5 1712 1 1913 3 2494
2596 1.16128 5.26504 5.47812 144 143 251 1.15965 6 1360 14 1534 5 1961 1 1915 3 2640
2595 1.3634 5.29546 5.47797 134 124 236 1.63138 6 1793 14 1533 16 1236 5 2176 1 1905 3 2631 13 1646
15447 -1.97144 4.98719 10.1679 83 76 73 1.38023 9 1287 2 871
2594 6.07386 7.06163 9.4334 172 165 173 0.766581 15 1880 14 1532
15446 0.526434 1.07613 8.02025 157 155 158 0.192813 2 867 4 651
2593 1.1708 5.32005 5.44906 145 136 253 1.49659 14 1529 16 1176 5 2318 13 1157 12 1541
15444 1.63877 0.0136002 7.63807 51 56 41 0.731532 11 1148 2 859 4 584
2591 1.26846 0.636535 8.43551 100 70 60 0.0249831 6 1686 14 1519
15443 -1.46349 4.92317 9.99036 76 70 70 1.62815 11 831 2 858 4 610
2590 1.57155 1.12549 7.7564 94 141 154 1.35299 15 1331 14 1518 7 1612 9 1309 11 1185 2 1296 4 1209
2589 0.599168 1.05452 7.99449 53 56 102 0.964315 14 1514 16 981 13 1549 12 774
15441 1.62049 1.10368 7.62495 108 138 146 1.96824 1 1691 11 840 2 838
2588 1.31714 1.07707 7.91047 100 102 115 2.11908 15 2374 14 1512 16 2069
15440 1.36286 1.8583 7.90283 217 190 99 1.55548 11 829 2 834 4 561
2587 3.42462 1.61704 5.90482 82 71 67 1.97362 15 1671 14 1510 16 1490 13 2097
2585 1.30941 0.483345 8.35119 115 126 128 2.00237 15 966 14 1504 16 1007 8 5463
15437 1.9106 0.641456 6.99973 73 54 48 0.640377 11 1201 2 829 4 637
2584 1.2774 0.306064 8.51156 62 58 55 2.09189 6 1305 15 967 14 1498 16 1505 5 929
15436 1.69967 2.41327 7.08864 47 47 65 0.950578 9 864 2 806 4 780
2583 1.25086 0.210645 8.4755 35 26 30 1.53507 15 969 14 1494 16 1018 7 1201
15435 3.01173 3.67457 4.94318 155 145 146 0.139518 1 5716 2 799
2582 1.44046 0.0234716 8.03908 141 131 140 1.81704 6 10053 16 1482 13 1121
2581 1.62269 0.0692526 7.65084 72 54 42 1.6675 15 973 14 1485 16 1051 5 3575 8 2714 7 930 9 944 11 636
15432 3.19971 0.18512 5.82882 147 137 135 0.118253 11 351 2 768
2579 1.70077 -0.272052 7.50866 10 17 23 2.40004 15 984 7 939 9 723
15429 0.71382 3.76934 6.36684 51 57 79 1.51008 11 747 2 746 4 760
2576 3.39082 0.289236 5.86525 124 81 44 1.57633 6 778 16 1654 5 726 8 918 7 916 9 899 1 674 3 721
15426 2.41605 2.41646 5.73863 125 159 169 1.26221 11 743 2 715 4 703
2573 1.92329 -0.40481 6.97593 179 179 191 1.5759 15 1054 14 1461 16 1196 5 2309 6 1723 7 1673 9 1012
15424 1.93652 -0.408697 6.98366 191 182 196 1.22183 11 1153 2 688 4 806 10 675
2571 1.60988 -0.791455 7.73792 36 38 51 1.84394 6 2390 15 1002 16 1089 14 1458
15423 2.35981 3.75539 5.60668 128 131 150 0.79143 11 709 2 681 4 969
2570 6.9192 -0.949654 7.77699 25 20 17 0.849302 6 1352 16 2166
15421 1.07538 3.66283 8.4902 223 223 235 0.962117 11 977 2 659 4 802
2568 3.54842 -0.08717 5.8821 128 124 121 0.76263 15 1303 8 967
15419 3.15419 7.8234 5.47252 69 52 45 0.392136 11 856 2 654
2566 -2.33938 0.972411 10.3665 28 24 25 0.790407 6 3409 14 1444
15418 1.34289 -0.514466 8.31927 171 57 83 1.08313 11 903 2 644 4 615
2565 1.74212 -0.982765 7.4258 50 47 58 0.97033 15 1008 16 1425 8 3841 7 962
15416 1.31052 1.05876 7.84879 102 101 106 1.75963 11 852 4 636 2 635
2563 2.30315 -0.639116 6.30171 104 78 65 2.16963 6 1255 14 1435 16 1409 5 774
2562 3.21189 -0.451709 5.83934 124 111 105 2.19054 14 1433 13 5712
15414 1.33073 -0.583322 8.32555 36 24 34 0.773799 11 663 2 625 4 403
2561 3.99069 -1.17764 6.1044 131 128 121 0.332564 15 1012 6 1031
15413 1.37025 -0.41978 8.26234 188 64 98 0.860128 11 654 2 616 4 401
2560 3.94926 -1.2199 6.09071 31 26 23 0.967193 6 1033 15 1265 8 1259
15411 1.46839 -0.540084 8.02645 42 55 67 1.63075 11 896 2 612 4 391
2558 1.77143 1.8702 7.07531 48 129 110 2.18655 15 1343 16 1527 8 3501 13 2022 12 1870
15410 1.48877 -0.482564 8.01733 35 32 53 0.520597 2 610 4 390
2557 3.22727 2.17332 5.93296 122 90 59 0.624852 6 899 5 872 8 1190
15409 -1.22365 0.763059 6.60987 123 115 112 1.79402 9 3691 2 600
2556 1.22322 1.58382 8.44926 65 56 63 1.07057 15 944 16 1539 13 1568
15408 -2.03316 5.41914 9.97096 116 107 106 1.15292 11 575 2 585
2555 2.02437 2.02634 6.62433 88 85 92 1.5025 15 1347 14 1409 16 976 7 1266 9 1590 13 896
15407 1.90778 -0.332524 6.98187 175 129 124 1.16165 11 866 2 572
2554 1.68802 2.01383 7.20825 40 126 100 1.57879 15 1041 14 1408 16 967 7 1567 9 1606
15406 2.09836 -0.625791 6.73194 92 66 63 0.472917 11 867 2 564 4 466
2553 1.30528 1.88432 8.05465 175 58 74 1.97906 6 3329 15 1067 5 5154 7 1592 9 2339 14 1407 16 2022 13 1570
15404 1.66181 0.958322 7.57395 57 56 62 0.835068 11 606 2 556 4 560
2551 1.65249 2.11163 7.27435 31 29 34 1.79509 6 5049 14 1404 16 1541 5 5069 13 1556 12 1221
15402 1.78167 0.710099 7.31081 188 182 183 0.719502 11 605 2 552 4 553
15401 1.69671 1.03432 7.46823 185 186 188 1.06921 11 596 2 550 4 556
2548 1.79675 2.3569 6.79511 44 32 46 1.54282 15 1267 14 1399 8 5148
2546 1.40171 2.25777 7.7728 192 183 188 2.04267 14 1396 16 1558 5 1544 9 885 7 1258 13 1505 12 1175
15398 2.10003 0.261355 6.6655 181 175 177 0.727097 11 591 2 533 4 530
2545 1.16324 2.36986 8.40408 198 199 202 0.774829 15 930 14 1389 16 619 13 191
2544 1.73999 2.65532 6.77821 172 176 197 0.4086 6 3219 14 1387
2543 1.32278 2.77038 7.70147 39 27 35 2.22419 15 925 16 942 5 3222 6 2197 3 3223 13 839 14 1383
15395 2.25613 0.151453 6.27947 189 154 114 0.893113 11 578 2 516 4 632
2542 1.63882 3.03351 6.86545 159 58 72 1.49043 15 1237 14 1377 16 1567 13 1394
15394 2.31643 0.176867 6.17609 172 133 76 0.61744 11 569 2 511 4 510
2541 1.68659 3.10116 6.70394 192 195 204 1.13524 15 1232 16 944 13 857 12 1188
15392 2.23732 0.595111 6.36632 187 182 186 0.857833 11 655 2 509 4 512
2539 1.5919 3.23686 6.82505 186 186 196 1.26763 15 1224 14 1369 16 1576 7 1304 9 1729 13 1357 12 978
15391 2.29315 0.494598 6.19576 103 113 113 1.05801 11 566 2 506 4 509
2538 1.62534 3.25596 6.71022 190 190 200 1.03402 15 1071 16 1575 13 1362 12 1177
15390 3.48028 -0.550307 6.02761 124 113 109 0.722619 11 384 2 503
2537 2.19302 3.41794 5.95633 15 13 18 2.15035 6 3130 14 1359
15389 2.37232 0.484433 6.00642 105 121 110 1.26678 11 556 2 497 4 497
2536 5.83886 3.69608 9.7493 126 113 120 1.39553 6 1217 5 2083 8 1155 7 1526
15388 2.79804 -0.431401 5.66532 131 92 59 1.19459 11 380 2 496
2535 1.61932 3.39426 6.89979 195 191 205 0.153667 15 908 16 930
15387 4.91119 -1.03332 12.0633 81 66 61 0.139869 11 914 2 482
2534 1.58609 3.4818 6.84343 140 138 151 1.93839 14 1349 15 905
15386 3.26788 0.040534 5.82232 142 132 130 0.378864 11 358 2 478
2533 1.68539 3.53338 6.66178 196 198 210 0.983326 15 1215 14 1347 16 924 7 1602 13 1349
15384 2.60119 1.02829 5.62096 45 43 48 1.82797 11 332 2 468
2531 1.52349 3.57366 7.03727 74 63 79 2.15614 15 1216 14 1343 7 2111
2530 1.61143 3.74261 6.42678 153 227 252 1.42965 15 1203 14 1333 16 1597 9 1546 1 1198 4 1459 10 4812
2529 1.63143 3.83158 6.37352 146 233 252 1.52255 15 1197 14 1327 16 1607 8 1143 9 1540 2 1559 4 1445 13 1335 12 1731
15381 1.19098 5.18653 5.54801 255 143 149 1.12398 9 284 2 442 4 446 10 1000
2528 1.24267 3.7986 6.36585 230 252 151 1.4092 15 1199 14 1326 5 1139 7 1344 9 1544 1 1196 11 1306 4 1467 13 1329 12 1660
15380 7.83577 4.11948 5.26085 127 113 114 0.132085 11 448 2 429
2527 6.28117 4.52119 8.8488 157 146 151 0.349254 6 1195 8 1110
15379 8.00349 4.63093 4.95652 170 158 158 1.6222 11 446 2 422 4 427
2526 1.42632 3.94157 6.31453 248 255 255 2.77686 15 1186 14 1315 8 1883 3 1607
15378 4.91043 -0.809412 12.2176 106 88 84 0.0441581 11 666 2 419
2525 1.159 3.99563 6.24488 253 147 134 1.51435 15 1181 14 1308 16 1633 5 1481 7 2029 13 1307 12 1123
15377 -2.00561 -0.385896 6.03229 179 174 173 1.3772 11 13779 2 412
2524 1.06996 4.04798 6.20391 255 147 140 0.481464 15 1175 14 1303 13 1298
15376 1.85532 4.53274 5.97929 233 255 255 0.98153 11 189 2 409 4 304 10 767
2523 1.70914 4.20971 6.15932 145 240 254 1.20934 15 1167 14 1293 16 888 5 1102 8 1111 9 1501 3 1217 2 1518 4 1731 13 803 12 1139 10 2810
15374 1.24214 -0.465644 8.5084 33 28 34 1.65738 11 665 2 405 4 264
2521 0.947366 4.25613 6.07545 167 244 243 1.51544 6 1163 15 1036 14 1282 5 1098 8 773 7 1236 9 1504 1 1016 3 1218 2 1096 4 1427 10 1952
2520 1.5051 4.31725 6.10808 255 255 255 2.19132 15 1155 14 1281 16 877 8 1564
15372 1.58683 -0.911371 7.8697 143 143 161 2.31568 11 906 2 381 4 396
2519 1.95961 4.39443 6.09645 46 42 76 1.76767 15 1152 8 465 7 809 5 622
15371 -0.984765 5.41555 10.4061 121 116 113 1.19662 11 291 2 375 4 199
2518 1.35864 4.36486 6.0435 251 253 188 1.04446 6 1156 14 1277 5 1089 8 1099 1 1143 11 1491
15370 2.02676 -0.557267 6.9048 180 175 172 0.601369 11 432 2 373 4 370
2517 1.61385 4.43569 5.99532 251 255 254 2.35678 15 1143 14 1274 16 867 8 1542
15369 1.95443 0.142779 6.93176 60 58 71 1.94439 11 405 2 361
2516 1.76771 4.49871 5.99886 148 240 253 0.562231 15 1137 14 1269 16 1356
15368 1.55782 1.38125 7.60489 126 102 79 0.950965 11 460 2 360 4 366
2515 1.09131 4.43211 5.98062 255 153 141 0.821354 6 1078 14 1267 16 1347 5 1421 8 1541 7 1468 9 2038 1 1512 3 1551 2 2200 13 1267
15366 1.23109 2.5105 8.18365 43 42 47 1.41581 11 287 2 355 4 375
2513 1.3169 4.56349 5.9208 249 254 195 0.969216 6 1143 14 1257 5 1073 8 1086 7 1119 9 1481 11 1419 3 1181 2 2160
15365 2.41805 -1.10797 6.01687 178 137 87 1.42214 11 436 2 352 4 340
2512 1.06479 5.09211 8.28699 96 123 150 0.856328 15 1136 14 1249
15364 1.94481 0.463532 6.9027 102 112 104 0.803165 11 399 2 351 4 351
2511 1.63676 4.75221 5.83589 255 147 144 0.496423 6 1454 14 1248 16 1325 5 1370 8 1479 7 1438 9 1985 1 1464 11 1890 3 1503 2 2109
15363 2.19367 -0.0566049 6.48456 191 185 188 0.483866 11 400 2 347 4 346
2510 1.32593 4.73075 5.81893 254 157 140 1.73424 6 1128 14 1247 16 832 5 1053 8 1068 9 1465 1 1101 3 1168 13 753 12 678
15362 2.38752 -0.450059 6.11524 180 142 96 1.44384 11 401 2 344 4 337
2509 1.43596 4.74182 5.82664 250 255 200 1.25545 6 1127 14 1246 16 835 5 1052 8 1067 9 1463 1 1100 11 1403 3 1167 13 758 12 1103
15361 1.35558 2.96369 7.52392 213 193 205 0.772462 11 344 2 340 4 226
2508 1.22504 4.80094 5.77369 255 157 145 1.61833 15 1106 14 1240 16 821 5 1049 8 1061 11 1401 2 2118 4 2001 13 744 10 4671
15358 2.24632 1.29982 6.2511 69 52 45 1.39197 11 341 2 322 4 215
2505 3.51599 -1.07339 5.8432 52 37 32 0.559741 15 1015 16 2150
15356 1.77701 4.15385 6.19785 238 254 255 0.865898 11 193 2 293 4 312 10 668
2503 1.72741 0.0724171 7.39571 55 28 45 1.49855 14 1202 6 2333 5 3576
15355 2.33596 3.15403 5.8071 135 136 157 1.86161 1 587 2 290
2502 0.731351 0.89355 7.62703 126 119 113 1.5028 15 3467 16 2081 13 7190
15351 1.43248 -1.06549 8.21502 77 65 64 1.63853 11 280 2 265 4 181
2498 1.54323 4.50624 5.99824 255 255 255 2.04942 15 1135 14 1182 16 857 8 1532
15349 1.69294 -0.692565 7.5279 178 141 60 1.08345 11 272 2 254 4 248
2496 1.41197 4.62012 5.89406 253 253 193 0.743833 6 1136 14 1164 5 1065 8 1076 7 1115 9 1478 1 1116 11 1415 2 2145
15348 1.71174 -0.288953 7.50923 39 39 49 1.45026 11 427 2 251 4 242
2495 3.81895 -1.50264 6.17351 59 55 54 1.44093 15 1020 7 964 5 684
15347 -1.42825 5.10155 9.97338 227 224 225 1.80291 11 229 2 249 4 175
2494 2.5357 -1.09195 5.76031 174 144 94 1.76658 6 1034 5 1005 7 444 3 503
15344 1.39212 2.39162 7.69411 169 133 135 1.10591 11 367 2 234 4 229
2491 2.35008 -0.776844 6.16586 131 151 157 1.08832 6 1018 15 752
15343 7.1915 7.71743 6.28284 20 19 27 1.22196 11 180 2 232 4 287
2490 3.45813 -0.658357 6.05642 51 61 61 1.35421 6 750 14 1135
15342 2.71138 -1.30137 5.65936 136 127 122 0.544501 11 251 2 229 4 332
2489 2.68936 -0.347532 5.60904 127 117 113 1.75368 6 740 7 696 8 942
15341 1.56686 3.1977 6.90605 93 93 117 1.20458 1 842 11 326 2 225 4 220
2488 2.20063 -0.776744 6.51194 129 147 157 1.92434 6 1013 15 746 14 1128 16 1142
15340 7.22688 1.92809 6.64987 63 53 49 1.5929 11 194 2 197 4 198
2487 3.69534 -0.59775 6.16722 33 39 35 0.391867 6 744 14 1127
15339 1.89881 4.72754 5.86857 229 255 255 1.14962 11 185 2 193 4 302
2486 3.2805 -0.360914 5.83608 113 77 47 2.33628 15 996 8 643 7 417
15338 7.22331 7.95343 6.56378 140 124 127 1.91086 11 178 2 186
2485 3.1209 -0.307668 5.78189 124 116 111 1.14939 6 512 15 995 16 1407 5 452 8 640 1 300
15337 1.54129 -1.06632 7.9514 22 16 17 1.32728 11 277 2 174 4 178
2484 1.51576 -1.05959 7.93104 45 35 36 2.36044 14 1110 16 1434 5 1004 15 741 7 734 6 1742
15336 1.6831 -0.145095 7.59558 170 136 62 2.19019 11 165 2 167 4 124 10 76
2483 2.69782 0.116661 5.65333 118 104 98 1.93773 6 499 14 1107 8 624
15335 1.88186 -0.167369 7.12745 190 153 82 0.626318 11 174 2 164 4 158
2482 2.00025 -0.300254 6.89667 59 57 62 2.47376 6 2369 14 1099 16 1094 8 2590 13 1455
15334 2.59912 -1.17528 5.68274 181 175 177 1.41108 11 162 2 159 4 102
2481 3.6896 0.179423 5.9919 37 26 24 0.0660973 14 1097 7 660
2480 1.49342 -0.681724 7.99706 26 21 27 2.2105 6 1722 15 718 8 1748
15332 2.16323 2.04618 6.3303 203 184 161 0.882978 11 151 2 150 4 146
2479 1.61027 -0.561812 7.74468 92 87 107 1.85959 6 1718 15 716 14 1094 16 663 5 1645 7 709 9 446 11 273 3 1068 13 619 12 530
15331 1.36004 -1.16563 8.55448 173 162 161 1.21976 11 128 4 116
2478 1.57067 -0.390386 7.67854 13 13 39 1.70538 14 1090 16 1461 13 2094 12 2294
15330 2.02784 1.51093 6.55745 201 195 197 1.29001 11 50 2 103 4 147
2477 2.11275 0.488515 6.61718 118 133 131 0.741032 15 765 14 1078 16 1063 13 979
2475 1.9732 0.474648 6.90818 122 134 134 1.57932 15 659 14 1075 16 1054
15325 0.816133 0.991212 7.71948 174 179 198 1.32666 11 60 2 73 4 71
2472 1.57612 0.481485 7.78451 82 94 94 1.27084 15 654 14 1064 16 1021 7 678 9 701 11 626 13 1521
15324 2.10545 -0.433595 6.86672 190 157 104 1.7834 11 62 2 72 4 70
2471 2.25684 1.14375 6.20002 102 138 148 1.31332 15 1326 14 1060 16 1037 8 1238 13 969
15323 2.05328 -0.144484 6.82004 121 140 144 0.490358 2 71 4 68
2470 1.31292 5.24678 5.5218 255 255 255 1.14527 15 891 16 504 13 427
15322 2.11225 -1.09872 6.87319 197 168 143 1.31737 11 69 2 51 4 51
2469 1.45147 0.706129 8.04246 117 109 98 1.78841 15 630 14 1052 7 500 8 1686 9 693 11 628
2468 2.20207 1.34061 6.26205 186 180 180 1.59177 15 954 14 1047 16 1023 13 953 12 1411
15320 1.32092 1.03112 8.02674 49 51 64 1.4533 11 23 2 25
2467 1.5897 0.958707 7.7325 60 57 68 1.40461 15 617 14 1043 16 999 7 650 9 674 11 610 2 563 4 567 13 905 12 803
15318 1.50606 2.2749 7.53233 184 159 152 1.42184 15 1293 16 957 7 1563 9 1344 13 870 12 753
2465 1.18316 0.996977 7.8485 52 52 62 1.71285 15 616 14 1038 16 2931
15317 1.85634 4.41373 6.05901 229 248 255 1.13824 15 7946 14 8028 5 7439 7 7281 9 8162 11 8263 3 5581
2464 1.23363 1.51082 8.51838 208 206 207 1.90255 6 1331 15 945 16 1538
15316 1.86534 4.462 6.02874 235 242 255 1.03514 15 7868 14 7965 5 7394 6 7418 8 7578 7 7230 9 8134 3 5559
2463 1.85788 1.87719 6.90178 148 116 120 2.59549 15 942 14 1019 16 977
15314 1.89103 4.49239 6.01448 205 244 255 1.49006 15 3985 14 3235 16 3506 3 5549 6 7387 5 7370 8 7551 7 3895 5 2792 13 4755 12 5836
2461 1.21852 1.81076 8.40972 194 193 201 1.57067 15 577 16 542 7 898 14 1014 13 318 12 278
15313 4.54968 -0.639338 6.53254 115 104 115 1.80788 15 2482 16 7208 7 1652 9 2395 11 3338
15312 1.37435 4.23501 6.11743 250 210 179 0.950697 6 7628 14 8165 5 7591 8 7833 3 5669 2 4646 4 8103
2459 1.93889 2.23736 6.63254 88 88 98 1.75822 15 933 16 969 7 876 9 860 14 1011 13 545 12 804
15311 1.51442 5.16421 5.57311 143 111 88 2.34156 6 6528 14 7068 3 8109 8 6684 15 6782
2458 1.19768 2.13753 8.28814 79 58 60 1.73563 6 2224 15 565
15310 1.52677 5.20964 5.54876 145 145 129 2.34946 6 6482 14 7025 5 6520 3 8074 7 6535 8 6603 15 6728
2457 1.16985 2.22532 8.42772 192 194 198 0.756775 15 557 16 538
15308 1.16135 4.00714 6.23825 243 167 133 0.916096 15 4585 8 3230 8 8048 14 8401 7 7568 3 8827
2455 1.98207 2.62593 6.48695 150 148 149 1.93655 15 771 14 1002 16 315
15306 1.38039 4.84261 5.7603 249 255 219 1.1155 14 7428 16 4779 5 6957 3 8286 7 6904 9 7925 13 5225 12 4723
2453 1.17979 2.88218 7.99885 144 30 41 1.76297 15 921 16 936 7 996 9 1243 11 1223 2 1333 4 1236 13 820
15305 1.16275 4.41929 5.98851 250 167 152 1.45458 15 165 16 117 6 169 5 177 7 183 8 166 9 300 1 219 11 308 3 230 2 292 4 474 13 111
2452 1.56929 2.9962 7.02854 37 73 71 2.05967 6 1224 16 943 5 1171 8 5024 13 1093
15304 1.84537 4.09457 6.24344 59 63 116 1.48119 15 12746 14 8390 16 9133 6 7780 8 7992 3 7710
2451 1.35721 2.95028 7.49334 211 184 202 1.54346 14 992 7 865 9 591
15302 1.77874 4.28066 6.12874 232 249 253 0.949364 15 3843 14 8166 16 8895 6 11803 5 7557 8 7805 7 7392 9 8239 11 8344 3 5650
2449 1.03879 3.06115 8.17384 164 55 61 1.42779 6 1225 14 989 7 868 9 866
15301 1.40466 4.37779 6.03943 255 255 190 0.512419 15 7931 14 8000 16 8685 5 7472 9 8211 3 5614 13 4919
2448 -1.70197 2.95183 10.5443 142 143 148 1.02562 6 877 14 984 5 879 8 798
15300 1.85576 4.65602 5.91031 228 248 255 0.853523 15 7590 14 7714 16 8511 5 7190 8 7316 9 8021 11 8123 3 5479 2 4882 13 4965
2447 1.22505 3.36635 7.83929 84 75 80 1.24465 14 981 7 856 9 853
15298 1.43325 4.92775 5.71384 234 181 133 1.09274 15 7108 14 7342 16 4833 6 6877 8 6974 7 6811 9 7865 3 8244 13 5267
2445 2.27164 3.62046 5.83522 60 57 76 1.11338 15 780 14 974 16 532 5 1995 7 1361
15296 1.87288 4.6178 5.93622 185 244 255 0.769139 15 2841 14 3193 16 3470 5 2751 8 3023 7 3948 1 3155 11 4136 3 2537 13 3717 12 5779
2443 2.12595 3.71427 6.14491 50 45 67 0.800016 15 889 14 969 16 522 7 1351 9 1149
15294 1.8688 4.82143 5.81682 251 169 157 0.983608 15 453 14 508 16 272 6 541 5 600 8 446 7 753 9 773 11 699 3 586 2 1033 4 985
2441 2.14576 3.81429 6.08691 50 41 62 1.3956 15 883 14 962 16 516 8 3281 7 1365 9 1134 5 2969 13 300
15292 1.73846 3.96638 6.30767 247 255 255 1.24983 15 135 14 148 16 125 6 136 8 128 7 170 1 143 3 136 13 125 12 181
2439 2.24229 4.01561 5.84755 98 85 111 1.2321 6 2988 14 953 16 475 8 2285 7 1240 13 510 12 293
15291 2.4185 -0.436251 5.9862 193 170 158 2.09799 1 7622 11 10977 3 10976 5 11057 15 12073 7 5647 9 6187
2438 2.23292 4.23272 5.85514 45 37 61 0.95814 15 857 14 941 16 438
15290 1.85749 4.15781 6.2046 253 179 221 1.19748 6 4474 5 4403 8 4779 7 3717 1 5280 11 3998 3 3960 15 4548 14 4951 16 3638 2 4661 4 5665 13 3864 12 5950
2437 2.30606 4.32392 5.6738 109 96 123 1.14743 15 853 14 935 7 1120
15288 2.02719 4.97014 5.73706 187 207 242 0.834384 6 3985 5 4006 8 4348 9 7244 1 5659 3 3794
2435 1.84955 4.46997 6.01818 135 241 255 0.848382 15 849 14 927 16 870 13 794
15287 1.71781 3.86375 6.36429 178 240 248 1.01837 6 4590 5 2990 8 3263 7 4374 9 4152 1 7382 3 3011 15 4707 14 5081 16 3721
2434 1.63894 4.48851 5.99196 255 255 255 2.04167 15 1034 14 925 5 1077 7 1127 9 1108 1 1127 11 1421 3 1189 4 2029 10 4661
